ply
format ascii 1.0
element vertex 1243
property float x
property float y
property float z
property uint8 red
property uint8 green
property uint8 blue
end_header
0.737029 1.445676 -0.712851 215 144 50
0.082562 2.027854 -0.939535 134 93 18
0.028004 1.647758 -2.567799 2 3 5
0.189494 2.060331 -0.844350 250 186 50
-0.268040 1.419943 -1.905295 145 101 16
0.117465 1.816177 -0.873501 144 144 161
-0.460562 1.213032 -2.130040 202 159 41
0.121623 1.728055 -0.921626 91 98 122
-0.241895 1.542823 -1.871337 241 198 60
0.110295 1.728003 -0.920253 91 98 122
-0.466437 1.270907 -2.109763 66 66 80
0.306064 1.520128 -1.032016 99 113 144
0.162360 1.505579 -1.332911 107 117 147
0.331347 1.466899 -1.029868 171 180 204
-0.287633 1.542066 -1.870535 162 127 32
0.255607 2.111872 -1.190518 0 0 0
-0.312924 1.566914 -1.855814 109 78 12
-0.816325 2.331577 -2.142049 53 33 26
0.630573 3.088329 -1.634402 234 217 176
-0.342776 1.537983 -1.872200 147 115 29
0.299874 1.710601 -2.121089 10 8 6
-0.916577 2.024675 -2.345995 7 7 7
-0.311745 1.647265 -1.801536 213 172 57
-0.758808 2.118748 -2.246519 10 8 9
-0.451062 1.521190 -1.926255 178 97 11
-1.038028 1.607907 -2.093185 246 187 49
0.419519 2.190117 -0.898375 255 232 108
-1.459279 1.970980 -2.439781 80 57 45
-0.175364 1.917041 -1.584522 157 100 13
0.117086 1.987751 -1.184243 71 77 94
0.264182 2.080060 -1.032209 178 99 18
-0.246422 1.485625 -2.699696 61 70 71
-0.363678 1.270661 -2.807696 32 31 36
-0.258057 1.473093 -2.684868 4 6 9
0.327961 2.012657 -1.929562 135 143 166
-0.689976 1.519997 -1.595914 93 83 78
-0.678653 1.134302 -2.058017 58 52 31
-0.841534 1.026165 -1.896356 0 0 0
-0.532059 1.604677 -1.879095 254 207 57
0.812855 1.788683 -1.188825 255 235 68
0.249302 1.697199 -1.532517 52 53 64
0.229759 2.094439 -1.006583 197 121 17
0.296717 1.984421 -1.937473 58 67 91
0.202247 1.632888 -1.948638 102 100 110
-0.299380 2.446928 -1.878228 14 12 14
-0.247416 1.846159 -1.420292 109 113 132
-0.409055 1.393421 -2.753425 2 2 3
-0.870726 1.368816 -2.304039 72 54 8
-0.992956 1.261348 -1.687500 255 198 51
-0.279336 1.885603 -1.407457 0 0 0
-0.503892 1.398617 -2.743140 48 54 51
0.296565 1.606213 -1.470134 0 0 0
-0.682420 1.049230 -1.861847 150 98 18
0.185490 1.493947 -1.472049 107 65 7
-0.041337 1.749517 -1.138718 148 102 20
0.259364 2.125026 -0.858369 235 171 46
-0.057941 1.719811 -1.133221 118 104 38
0.097456 1.732215 -0.985509 160 164 186
-0.543207 1.525642 -1.618866 163 106 17
10.420325 3.722072 -12.092041 151 100 71
0.180131 1.951919 -0.820025 157 77 3
0.115919 1.650498 -1.841253 101 69 11
-0.934167 1.897545 -2.166706 132 128 143
0.091512 1.795980 -0.855614 200 207 237
-0.193486 2.473239 -2.012165 19 17 19
0.200412 1.893265 -0.702617 255 255 76
-0.415547 2.242031 -2.011722 157 149 162
-0.599580 1.440248 -1.498962 229 130 11
-0.305448 2.460243 -1.889117 229 210 169
1.340515 2.254110 -2.109945 110 76 63
-0.295776 2.432283 -1.894147 228 210 169
0.773318 1.840350 -2.342965 43 31 28
-1.076668 1.523201 -2.089690 200 206 228
0.773318 1.840350 -2.342965 43 31 28
0.280155 1.561528 -1.466436 154 122 30
-0.837123 1.299728 -2.336527 34 31 12
0.427707 1.808856 -2.443447 196 179 142
-0.588968 1.737342 -1.809646 179 139 37
0.387013 1.640687 -2.426078 111 76 59
0.180495 1.893417 -1.090088 145 120 44
0.499005 2.296457 -2.150514 221 205 165
-0.827317 2.034244 -2.286407 9 7 6
-0.712768 1.079574 -2.991806 181 169 144
0.282866 1.693472 -2.113633 4 3 4
-0.797383 1.836610 -2.264881 105 97 102
-0.205033 1.336653 -2.740695 42 26 19
-0.603390 1.144966 -2.939918 166 155 128
0.287127 1.712789 -2.080621 6 8 14
-0.361865 1.324620 -2.059164 52 54 65
-0.288583 2.398449 -2.096145 4 5 6
-0.215206 2.450778 -2.054805 193 172 136
-0.261845 1.205523 -2.759414 76 56 50
-0.215206 2.450778 -2.054805 193 172 136
0.857116 1.662125 -1.202983 255 253 73
-0.351330 2.269838 -2.016622 75 74 83
0.331448 2.050196 -1.996494 90 91 101
-0.351330 2.269838 -2.016622 75 74 83
0.181639 1.822184 -2.142428 85 70 53
0.330766 1.205930 -2.284106 0 0 0
-0.212055 2.388892 -2.004298 65 66 80
-0.248559 4.790423 -3.130573 255 210 61
-0.314695 2.471235 -1.864845 21 19 21
0.166406 1.709280 -2.033001 22 13 13
-0.290104 2.469949 -1.867262 233 212 167
0.302998 1.962199 -1.853541 111 119 138
-0.290104 2.469949 -1.867262 233 212 167
-0.097334 1.518512 -2.286144 80 63 11
-0.249577 2.427835 -1.894084 236 210 168
-0.097334 1.518512 -2.286144 80 63 11
-0.826930 1.804462 -2.021455 193 134 30
0.168983 1.703123 -1.940096 137 106 27
-0.722909 1.218043 -2.416150 32 42 53
-0.525469 1.325504 -2.816902 90 102 104
0.432872 2.194633 -0.902771 200 131 20
0.124399 2.027522 -1.618653 219 157 67
-0.489916 1.378012 -2.767202 58 64 62
0.328118 2.078563 -1.024613 255 210 55
-0.685640 1.546182 -1.571261 104 101 117
0.152481 1.719137 -1.905855 105 72 10
0.237939 1.678728 -1.530290 171 124 49
0.327246 1.841120 -1.647277 170 125 32
0.215242 1.464947 -1.538137 107 102 106
0.354546 1.632371 -1.573536 111 89 21
0.200620 1.441185 -1.544516 16 14 17
-0.559324 1.244667 -2.719572 12 13 15
-0.335009 1.276408 -1.761574 142 98 18
0.180526 1.969827 -1.008372 143 110 26
0.416369 1.618289 -1.429705 154 116 32
-0.488920 1.553923 -1.903635 255 218 61
0.092489 1.790701 -0.875714 162 158 170
-0.229270 1.537958 -2.266102 11 10 5
-0.141855 1.743235 -1.503968 189 144 38
0.191419 1.672807 -0.973314 94 105 133
0.411329 1.603493 -1.391543 19 22 33
0.286850 1.564945 -1.057823 106 118 144
0.145677 1.414057 -1.683588 17 21 30
-0.488095 1.565687 -1.892267 171 100 11
-0.645762 1.128861 -2.071599 77 91 120
-1.013222 1.963211 -2.433522 109 104 87
-0.562004 1.220329 -2.545009 9 10 13
-0.298881 2.485065 -1.886438 235 214 173
-0.259138 1.479457 -1.928471 199 124 16
-1.073551 1.493120 -2.087213 151 159 188
-0.461386 1.326786 -2.086066 96 95 113
-0.714119 1.100518 -2.078526 63 65 80
-1.000076 1.271723 -1.704090 252 194 64
-0.306127 1.387432 -1.836053 204 126 17
-0.584443 1.564163 -1.913149 144 98 31
-0.687245 1.534717 -1.581671 148 156 181
-0.306127 1.387432 -1.836053 204 126 17
-0.380360 1.182354 -1.667323 125 91 18
-0.129984 1.858107 -1.200285 84 85 96
0.404161 2.176996 -0.932296 253 201 53
0.189187 1.982649 -0.959806 168 99 11
0.122989 1.940069 -0.807210 134 98 22
0.329839 1.482131 -1.067727 88 98 123
0.347831 2.147097 -0.962180 255 205 57
0.128637 1.443873 -1.647806 12 12 15
-0.037259 1.748989 -1.151335 255 212 65
0.132756 1.461362 -1.650867 29 24 20
0.292550 2.115599 -0.990333 253 191 47
-0.739040 1.579651 -1.893446 192 192 209
0.295595 2.109901 -0.987155 253 191 47
-0.981688 2.247844 -2.214646 106 72 57
0.300018 1.609000 -0.983277 26 19 12
0.438032 2.613312 -1.866056 244 223 176
0.245154 2.087071 -1.035325 225 163 38
0.040814 3.033921 -1.962852 0 0 0
0.305845 1.690740 -0.963306 43 47 59
-0.680297 0.971103 -1.768413 112 77 15
0.208743 2.104855 -0.858671 255 199 53
-0.374671 1.244380 -1.693659 198 121 16
-0.701787 0.971360 -1.783364 255 227 71
-0.546040 1.298104 -1.589638 255 210 56
-0.187986 1.775719 -1.462025 167 120 31
-0.672870 0.975388 -1.752250 255 225 71
-0.290407 2.283559 -2.050638 91 95 112
-0.491928 1.684904 -1.741746 205 120 13
-0.740823 1.253137 -1.648554 255 230 72
-0.397974 1.196814 -1.646942 202 121 13
0.202251 1.878439 -0.706592 191 125 19
0.070264 1.466530 -1.715841 216 185 63
-0.580878 1.635064 -1.830257 63 61 74
-0.170327 2.260884 -1.801372 15 16 17
0.167649 2.078538 -0.925307 255 240 75
-0.875089 1.236148 -1.582921 255 232 73
0.192601 1.402202 -1.344816 237 206 68
0.235081 2.064183 -0.843658 199 125 19
-1.377896 2.010507 -2.453229 75 54 48
0.103270 1.695112 -1.004814 3 4 6
0.848265 1.945537 -2.311912 88 59 43
-1.372573 2.033215 -2.372937 71 47 36
-0.048517 1.737136 -1.150261 121 109 48
-0.327567 2.317738 -2.069099 162 156 170
-0.048517 1.737136 -1.150261 121 109 48
0.592653 3.052751 -1.616990 230 214 176
0.114180 1.798502 -0.849468 202 209 229
0.513408 1.610047 -2.397103 83 58 51
0.493489 2.319393 -0.864194 255 229 72
-0.689398 1.126537 -1.650142 234 190 61
0.380197 1.642235 -2.506862 31 22 20
-1.042264 2.146533 -2.278783 41 26 19
-0.630166 1.495285 -1.522124 156 162 183
0.487023 1.741486 -2.356724 192 175 140
-0.954009 1.982636 -2.297409 118 111 122
-0.577086 1.395306 -1.479404 255 186 41
-0.916518 1.750211 -2.010137 255 194 51
-0.699135 1.136603 -1.622967 183 128 48
0.457898 3.078370 -1.637757 76 45 32
0.266010 1.644511 -2.529644 81 59 51
0.566175 3.111505 -1.659249 79 48 32
0.198953 1.693448 -2.083386 77 59 45
-0.185983 2.318156 -1.843095 133 133 148
-0.445600 1.205438 -2.131848 139 110 25
-0.098414 2.359061 -1.787746 201 176 133
-0.574732 1.795824 -1.783099 255 201 61
0.348837 1.748145 -2.141650 10 8 9
0.171733 1.443678 -1.598090 13 13 16
0.347763 1.808396 -2.151754 116 118 134
0.171733 1.443678 -1.598090 13 13 16
0.072908 1.567709 -2.598497 88 97 96
-1.176143 2.049979 -2.380619 48 34 29
0.395793 1.811446 -2.418518 196 183 150
0.326886 1.768261 -2.116816 96 101 117
-1.190787 2.048369 -2.369778 48 34 29
0.370423 1.798549 -2.293092 32 26 21
0.265649 1.720731 -2.197219 55 64 88
-1.064821 2.115726 -2.328569 49 35 31
0.142035 1.813560 -2.113035 43 35 27
-0.928691 2.281556 -2.161184 117 78 60
-0.512792 1.278002 -2.815508 101 110 109
0.264861 1.662454 -2.107071 4 3 4
-1.016515 1.892231 -2.349793 139 125 130
-0.227259 1.564121 -1.864382 221 176 45
-0.665498 2.334337 -2.089221 221 205 165
-0.007975 2.848298 -1.787109 60 38 29
0.306837 1.861698 -2.139167 23 21 17
-0.143292 2.376456 -1.912053 122 119 129
-0.413849 1.172367 -1.653127 255 236 63
0.237737 1.688467 -2.093456 2 2 4
0.209363 1.432747 -1.522605 110 121 150
0.472292 1.956885 -2.360325 218 201 163
-0.326385 1.211308 -2.817135 58 47 47
0.097126 1.974457 -0.870600 152 125 34
0.495807 2.172234 -0.924116 0 0 0
0.107336 1.927101 -0.730357 151 123 33
0.495807 2.172234 -0.924116 0 0 0
0.625754 1.415392 -1.057431 138 113 28
0.811738 2.443016 -2.025105 230 213 178
-0.258818 2.663064 -1.910882 48 31 24
-0.074734 1.731553 -1.160668 121 105 35
-0.028905 2.773524 -1.846705 107 74 60
-0.677110 1.103744 -1.676702 255 226 72
-0.251031 2.410660 -2.057832 6 6 7
0.564884 3.206478 -1.593770 219 184 144
0.680563 1.956736 -2.332294 102 69 53
0.493546 2.865099 -1.782578 228 214 178
-0.138120 1.495711 -2.304600 78 61 11
-1.154930 1.652755 -2.639079 156 152 135
0.070956 1.562944 -1.973648 8 13 20
-0.494295 1.381482 -2.773438 58 64 62
-0.974105 1.919138 -2.255935 81 84 98
-0.088436 1.493384 -1.992809 86 81 23
-0.139632 2.726972 -1.867453 49 35 33
-0.108179 2.753453 -1.854692 110 75 61
0.414649 2.163266 -0.945039 248 192 45
-0.217397 1.535194 -2.271516 46 32 4
0.053812 2.854780 -1.730599 47 27 20
0.420734 2.184957 -0.918675 119 71 13
-0.304380 2.316921 -2.014588 161 155 165
0.391409 2.240414 -0.872959 255 255 75
0.612040 3.152696 -1.576550 152 103 77
0.304669 2.140363 -0.835239 166 97 14
-0.543163 1.872364 -1.784541 202 206 231
0.182230 1.689217 -1.617231 196 133 29
1.046287 1.990571 -2.230862 148 99 69
-0.586645 1.314288 -2.550553 5 4 4
0.229075 2.070861 -0.796619 164 117 23
0.239643 1.645438 -1.500257 125 73 7
-0.481406 1.256601 -2.330124 5 4 2
-0.573867 1.263072 -2.420945 27 29 24
-1.061966 2.203145 -2.256491 74 48 37
0.314193 1.671908 -2.479132 86 61 49
-0.024865 1.437087 -1.713985 110 87 20
-1.167893 1.935937 -2.465326 128 125 109
0.673645 2.468830 -1.989558 116 112 99
-0.258483 1.434149 -1.968777 121 91 39
-0.980557 1.954573 -2.306890 84 88 105
-0.252526 1.451602 -1.951571 255 221 58
-1.017884 1.908973 -2.283883 156 149 161
-0.943848 1.950603 -2.280541 69 72 86
-0.389603 1.459182 -2.668304 1 2 3
-0.285296 1.436791 -1.885386 207 120 14
-1.031729 1.579328 -2.646687 150 136 109
-0.489365 1.210140 -2.612283 2 2 4
0.176534 1.459335 -1.322973 108 112 128
0.376596 1.596587 -1.037881 118 94 28
-0.591327 1.372656 -2.136168 136 107 28
0.368827 2.157633 -0.951395 254 204 53
0.368624 2.157513 -0.951208 254 204 53
0.312249 2.127481 -0.980549 255 196 49
-0.900478 1.952151 -2.219772 147 138 150
-1.019222 1.799086 -2.105546 13 12 12
-0.206666 2.472816 -2.023857 213 195 152
0.140166 1.709803 -0.975594 25 21 20
-0.139524 2.455929 -1.964845 232 210 163
-0.192861 2.441499 -1.872807 7 6 8
0.223729 2.169286 -0.882744 187 135 28
-0.655728 1.188625 -1.575058 255 217 67
0.076534 2.006061 -0.917074 155 126 32
0.216281 1.464506 -1.536112 100 99 98
0.343458 1.797304 -2.457675 103 101 96
-0.852659 2.008631 -2.283479 162 157 170
-0.949723 1.617499 -2.614025 110 95 72
-0.043372 1.894901 -3.092151 124 110 115
-0.948632 1.752849 -2.125165 80 59 9
-1.036232 1.498117 -2.013054 174 140 37
-0.546092 1.348171 -1.628520 198 139 25
-0.244920 2.237222 -1.760393 2 2 3
-0.266208 1.630574 -1.811089 200 165 56
-0.700100 1.233524 -1.592017 252 175 36
0.135775 1.419791 -1.665164 85 98 129
-0.880065 2.035586 -2.236090 27 23 23
-0.002249 2.855716 -1.772323 134 83 56
-0.607768 1.223992 -2.882931 83 82 69
-0.439514 2.307226 -1.992313 6 6 9
-0.235023 1.377802 -2.039826 161 170 198
-0.651908 1.771742 -2.467515 157 163 183
0.043605 2.853393 -1.742341 85 53 39
0.394253 2.298428 -1.519815 0 0 0
0.043605 2.853393 -1.742341 85 53 39
-0.949868 1.039848 -1.955267 0 0 0
-0.241232 2.417965 -1.937605 23 23 26
0.816081 1.880521 -2.311781 107 77 66
-0.346543 2.256989 -1.965427 86 90 109
0.874694 1.910667 -2.337370 98 68 55
1.044922 1.992768 -2.233015 148 99 69
0.401167 2.874565 -1.760176 212 197 162
0.008901 2.054042 -2.113708 178 133 32
0.195540 1.450383 -1.526051 122 124 138
0.106351 1.543069 -1.200337 0 0 0
0.159036 1.681962 -1.908555 133 103 24
-0.717527 1.101951 -2.962677 164 160 144
0.485718 2.135385 -1.523317 0 0 0
-0.943474 1.916240 -2.207082 133 125 135
-0.251381 2.313913 -1.915361 138 128 138
-0.288519 1.434967 -2.493642 5 5 6
-0.251381 2.313913 -1.915361 138 128 138
0.289156 1.979118 -1.920662 77 79 96
-0.520662 1.276779 -2.546946 26 17 16
-0.309285 1.422460 -2.504945 57 65 87
-0.726054 1.138360 -2.495006 82 89 85
0.158782 1.623826 -2.562359 90 99 97
0.698590 1.879042 -2.341543 33 20 15
-0.682974 1.868183 -1.928691 255 236 59
-0.330292 1.285865 -2.794572 20 16 17
-0.963627 1.571260 -1.978113 255 196 52
0.484415 2.301873 -2.139672 121 107 81
0.113502 1.882837 -1.237470 120 80 14
-0.389534 2.224263 -1.982444 146 134 144
0.604312 1.339767 -1.056153 106 92 23
-0.531016 1.898088 -1.777922 200 195 213
-0.550329 1.268644 -2.410992 42 37 6
-0.997395 1.468081 -1.861690 200 202 222
-0.228235 1.352128 -2.067241 71 84 115
0.113052 1.918191 -1.181575 182 137 36
0.366915 1.836046 -2.348623 2 2 5
0.114946 1.809088 -0.863160 24 21 20
0.324026 1.483205 -1.081466 122 132 160
0.095958 1.787225 -0.854535 174 172 186
-0.682764 1.035932 -3.033559 97 101 93
0.166354 2.838534 -1.810733 75 51 40
-0.304571 2.639539 -1.982077 62 39 30
-1.078080 1.512976 -2.110578 86 99 128
-0.415538 1.579392 -1.505868 0 0 0
-0.907816 1.766367 -2.047634 27 16 4
-1.481068 2.027668 -2.454137 97 82 64
-0.229644 1.889099 -1.367605 35 41 49
-0.395476 1.388554 -2.551654 61 70 95
-1.348810 1.968224 -2.460804 99 102 91
0.221680 1.921948 -1.915890 83 46 4
-0.473602 1.345531 -2.364592 19 16 4
-0.944109 1.263190 -1.616647 255 237 75
-0.270314 1.868733 -1.443260 108 113 132
0.143133 1.913581 -0.680317 255 249 80
-0.719065 1.600836 -1.654122 69 63 55
1.084686 0.215992 -2.929127 85 84 80
0.037628 1.889549 -1.362006 96 76 17
-0.289115 1.427900 -2.481760 15 21 30
-0.215284 1.351143 -2.721531 59 45 43
-0.958969 1.391065 -2.460332 70 59 41
-0.520591 1.226602 -2.425791 63 76 108
0.362314 1.609395 -2.520746 51 36 30
-0.386133 1.416317 -2.593290 37 36 45
0.341654 1.664884 -2.130396 4 4 6
-0.662729 1.221907 -1.658467 237 161 42
-0.058747 1.607499 -1.684003 142 116 43
-0.857844 1.145409 -1.683543 255 235 86
-0.329877 1.414860 -2.485710 54 64 86
-0.497601 1.126355 -1.655892 255 232 75
-0.812297 1.190432 -2.694601 0 0 0
-0.665848 1.207013 -2.511019 97 100 93
0.376196 1.891459 -2.351766 180 162 121
-0.522192 1.240375 -2.853059 53 43 42
-0.169408 1.420750 -2.052858 132 145 177
-0.697350 1.125203 -1.666369 155 120 30
0.288146 1.784395 -2.465854 69 77 77
-0.181825 1.411133 -2.029484 108 94 30
-0.525810 1.191371 -2.861162 131 135 126
-0.149552 1.858099 -1.288568 92 97 120
0.110759 1.911508 -1.561103 0 0 0
-0.744046 1.310648 -2.855573 124 126 118
0.178434 1.373167 -1.379843 102 91 25
0.316431 1.460639 -1.165787 13 12 14
-0.358743 1.279054 -2.742889 2 3 5
0.244704 2.875881 -1.746685 39 22 18
0.173434 1.706913 -2.287121 20 20 29
-1.357694 8.227703 -1.738173 121 112 91
0.709130 1.615940 -1.347147 0 0 0
0.666409 2.360990 -2.071112 118 110 87
-0.102444 1.435079 -1.202399 0 0 0
0.244794 1.845504 -1.759306 110 90 23
-0.266156 1.445663 -1.925113 255 228 58
0.218628 1.980721 -2.010512 117 95 22
-0.411024 1.407324 -2.599921 58 68 92
-0.585558 1.259473 -2.845995 142 146 141
0.577960 1.928416 -2.359222 221 206 171
0.094134 1.723421 -2.058355 90 69 14
0.443643 1.653712 -1.359283 89 71 16
0.601703 2.126022 -2.252739 229 213 173
0.327533 2.014033 -1.746199 0 0 0
0.260392 1.896003 -1.531514 0 0 0
-0.230305 1.822927 -1.536588 32 31 37
-0.737495 0.987707 -1.863752 15 13 18
0.872111 1.675424 -1.223716 106 93 27
0.394266 1.616841 -1.312118 117 102 27
-0.315451 1.213073 -2.789378 106 73 55
0.797749 1.861803 -2.340524 106 76 65
0.693672 2.104585 -0.978213 255 248 81
1.124421 2.201028 -2.157239 228 212 175
-0.280532 1.469175 -2.697919 4 6 9
-0.114715 1.565683 -2.626960 5 6 8
0.261529 1.796772 -2.299665 59 65 87
0.816303 2.420612 -2.024632 230 217 181
0.142714 1.684721 -2.302349 61 69 92
0.163715 1.697365 -2.288837 33 28 8
-0.668661 1.161714 -2.124882 93 68 14
-0.071726 1.637080 -1.854606 63 34 3
0.306482 1.857281 -1.655299 174 134 56
0.211064 1.823214 -1.676653 98 57 6
0.211064 1.823214 -1.676653 98 57 6
-0.665527 1.506865 -1.948435 128 89 21
-0.669797 1.037601 -2.986536 57 37 29
0.010497 1.637276 -2.574725 6 7 9
-0.476812 1.343622 -2.765552 7 9 12
0.349815 1.810648 -2.402170 5 5 7
-0.605269 1.153024 -2.653061 127 128 121
0.289843 1.802149 -2.290838 64 68 87
-0.255066 1.543713 -2.496010 89 76 21
0.157319 1.729900 -2.320208 18 23 34
0.157319 1.729900 -2.320208 18 23 34
0.153725 1.660673 -2.250007 58 65 87
-0.509860 1.264800 -2.507352 54 59 79
0.498533 2.384229 -2.041755 236 217 179
0.817064 2.611611 -1.899951 229 212 176
-0.009573 1.552199 -2.224329 2 2 3
-0.472337 1.271901 -2.392073 3 4 5
-0.176846 1.582350 -2.233399 74 60 12
-0.243544 2.376446 -2.172022 5 5 6
-0.516153 1.323568 -2.347505 4 3 1
0.160619 2.696085 -1.884749 231 215 178
0.502640 2.902118 -1.736942 231 217 181
0.500473 2.909611 -1.736712 231 217 181
0.115782 2.763352 -1.853736 224 207 172
0.355195 2.915324 -1.732199 44 25 16
0.533198 3.079688 -1.627310 229 216 179
0.096800 2.801284 -1.783115 35 16 8
0.513216 2.711859 -1.647632 153 105 80
0.128958 2.811010 -1.753711 150 105 81
0.193364 2.872061 -1.705535 51 26 15
0.272990 1.959985 -1.818086 13 13 15
0.315283 1.946756 -1.781672 255 255 255
-0.411534 1.243425 -2.113593 138 112 47
-0.732959 1.380492 -2.140213 146 95 16
-0.619083 1.376728 -2.102640 120 71 6
-0.333231 1.418476 -1.995245 40 16 1
0.113845 1.585693 -1.828348 98 78 18
0.110693 1.591035 -1.828152 98 78 18
-0.774213 1.454609 -2.088510 152 124 53
-0.570226 1.431540 -1.996772 161 117 41
-0.624573 1.111597 -2.052462 76 93 129
-0.700598 1.092705 -2.077583 61 71 95
0.039947 1.433029 -1.766506 81 72 28
-0.240445 1.675623 -1.786160 134 96 17
-0.413494 1.624611 -1.833360 237 193 52
-0.904704 1.427858 -1.922033 234 174 42
0.306335 1.567188 -1.529108 93 71 16
-0.933975 1.432768 -1.831478 0 0 0
-0.783746 1.340552 -1.715612 100 87 24
-0.796395 1.448466 -1.688424 97 84 22
0.163607 1.862522 -0.718133 151 132 39
0.952731 1.959005 -2.292126 40 25 20
1.326131 2.188461 -2.144561 107 78 68
0.151282 1.782179 -2.424314 52 64 90
-0.344677 1.470031 -2.583847 55 65 89
0.210253 1.729636 -2.289793 63 71 96
0.092931 1.641565 -2.272354 59 65 85
-0.198116 1.557307 -2.255502 9 6 3
0.130284 2.722199 -1.890297 228 212 172
-0.614424 1.344193 -2.303432 59 57 62
0.305647 2.813526 -1.816691 226 210 171
-0.382156 1.235751 -2.141418 100 88 25
-0.542621 1.356296 -2.078305 58 63 81
0.336726 1.907812 -1.700852 195 142 47
0.079700 1.689715 -1.709587 63 55 53
0.220007 1.418054 -1.552254 76 93 128
0.233611 1.425985 -1.545685 11 11 15
-0.232113 1.870076 -1.413707 94 99 119
-1.018146 1.170122 -1.666914 248 221 75
0.151145 1.679707 -0.909920 71 81 108
1.011712 1.996331 -2.279469 94 63 48
-0.200443 1.536062 -2.653635 55 65 67
0.180641 1.747798 -2.491161 54 65 67
-0.542537 1.357789 -2.732848 62 65 61
-0.542768 1.358640 -2.733195 62 65 61
0.379718 1.809635 -2.368976 192 174 136
0.323660 1.862838 -2.369318 185 169 131
-0.467234 1.392387 -2.665447 37 39 52
-0.485921 1.363014 -2.630470 0 0 0
0.563300 2.288331 -2.136688 212 196 157
0.311741 1.794744 -2.238077 37 42 60
0.239520 1.744346 -2.266179 31 37 53
0.204665 1.728797 -2.280982 31 39 56
0.978919 2.629248 -1.899361 100 98 84
-0.354779 1.370012 -2.444078 22 25 36
0.982969 2.645345 -1.855418 134 122 97
-0.476738 1.166792 -2.473241 9 9 11
0.129027 1.914261 -2.059419 79 57 8
-0.297694 1.282849 -2.091178 106 92 26
-0.323911 1.291673 -2.051245 90 72 16
-0.439323 1.412954 -1.990173 139 97 16
0.054793 1.424130 -1.727170 96 109 141
0.429725 1.602890 -1.356227 23 22 22
-0.218084 1.852638 -1.431373 18 14 6
-0.489533 1.834408 -1.590667 31 28 25
-0.895224 1.502095 -1.916929 0 0 0
0.214667 1.827377 -2.378238 41 47 65
0.221508 1.730260 -2.265531 54 63 88
-0.529039 1.262256 -2.520877 43 52 73
-0.419041 1.188111 -2.867789 113 74 51
-0.132942 1.332695 -2.731016 61 39 29
-0.475327 1.319524 -2.749259 51 59 57
0.113029 1.768630 -0.865340 156 166 193
-0.684331 1.252966 -2.893348 149 152 145
-0.953460 1.375172 -2.820800 142 142 135
-0.897795 1.407199 -2.798748 135 138 131
-0.463376 1.314961 -2.532615 54 67 96
0.760980 2.517906 -1.939586 234 219 179
0.265556 2.815751 -1.815211 218 198 156
-0.727637 1.151250 -2.943905 100 99 87
-0.110539 1.624382 -2.365591 53 37 4
-0.246517 1.512038 -2.259056 84 74 20
-0.658498 1.027725 -3.010027 53 36 29
-0.206723 1.392125 -2.725494 23 18 18
-0.468275 1.376569 -2.623326 23 26 38
-0.652329 1.203355 -2.627822 122 125 117
-0.522532 1.303370 -2.585646 31 25 10
0.553332 2.292713 -2.144937 230 212 168
-0.198329 1.516180 -2.664053 5 6 8
-0.443801 1.390874 -2.743032 3 5 10
-0.470470 1.387223 -2.749706 2 3 5
-0.435437 1.436852 -2.690737 2 3 4
0.288083 1.819788 -2.424232 2 3 6
-0.264298 1.560674 -2.499244 86 75 20
-0.048142 1.676414 -2.405438 87 74 20
-0.132497 1.598558 -2.212970 85 68 19
0.177873 1.919599 -1.959025 84 59 8
0.231243 2.824257 -1.804858 211 196 161
0.293174 1.963991 -1.824915 99 104 120
0.335421 1.913888 -1.722530 203 170 145
-0.126156 1.610514 -1.876083 57 23 1
-0.514886 1.465551 -1.972791 160 118 44
-0.611340 1.480155 -1.967806 152 107 33
0.434117 1.623969 -1.418740 62 69 92
-0.712316 1.367307 -1.697382 0 0 0
0.301401 1.853256 -2.388341 187 169 132
0.274024 1.758660 -2.212338 35 23 13
-0.442299 1.224668 -2.111254 219 179 63
0.123611 1.432653 -1.716981 11 11 16
-0.624429 1.337008 -1.526942 196 137 24
0.690974 1.411963 -1.191818 253 217 61
0.239932 1.695719 -2.521055 64 47 39
-0.418755 1.388413 -2.580738 57 65 89
-0.343102 1.410616 -2.479688 28 33 49
0.079662 1.635194 -2.271969 59 64 85
0.048655 1.916733 -2.095408 6 6 8
0.356896 1.891933 -1.675326 101 103 101
0.304394 1.797954 -2.266721 25 30 44
0.224932 1.723469 -2.262530 54 61 83
0.064635 1.447046 -1.694319 93 87 26
-1.119402 1.722797 -2.593464 80 74 58
0.177787 1.938532 -2.113945 7 7 8
0.658452 1.547171 -1.316851 104 91 26
-0.673338 1.307653 -2.138511 204 157 46
-0.645173 1.232130 -2.675432 104 106 98
0.077360 1.586747 -1.854015 102 89 25
-0.282851 1.589885 -1.812345 42 33 7
0.069944 1.622498 -2.399049 65 55 44
0.418779 1.829842 -2.206028 197 179 141
0.612026 2.403727 -2.049892 233 218 179
0.265868 1.908620 -1.820397 114 94 25
-0.241675 1.806052 -1.452695 231 197 71
0.956198 1.982702 -2.280475 107 78 66
0.511226 1.920715 -2.383974 223 207 171
0.345270 1.905454 -1.719756 169 132 80
-0.273469 1.503781 -1.705782 6 5 6
0.287633 1.666378 -2.509197 31 23 19
-0.494634 1.333862 -2.602085 20 24 36
-0.673094 1.294503 -2.461721 75 72 19
0.310953 2.884444 -1.755148 56 37 25
-0.296200 1.702137 -1.744510 198 159 61
-0.664521 1.028608 -2.983766 55 36 29
0.345515 1.840467 -2.368374 4 6 10
0.364798 1.821745 -2.340535 1 2 3
-0.264572 1.554733 -2.499371 86 74 18
-0.534482 1.286070 -2.574394 61 66 86
0.236666 1.781445 -2.337941 61 68 94
-0.478619 1.297161 -2.522249 57 64 87
-0.395906 1.353172 -2.493528 58 67 90
0.261486 1.782282 -2.269288 59 66 89
0.378039 1.760391 -2.149308 229 207 166
0.287693 2.900610 -1.737144 113 82 69
0.291032 2.888079 -1.736694 113 82 69
-0.245402 1.747184 -1.740420 143 101 18
-0.681044 0.999498 -1.744245 140 115 27
0.073500 1.668536 -2.547903 6 5 7
0.674707 1.825898 -2.364863 107 77 66
-0.323491 1.419680 -2.494704 26 32 45
0.363899 2.843705 -1.792625 227 212 173
0.532505 3.102102 -1.587702 151 104 81
0.488428 3.096231 -1.593103 65 38 26
1.121002 2.152707 -2.172191 225 205 167
-1.043237 1.493229 -1.975920 0 0 0
0.545958 3.126190 -1.568320 66 40 29
-0.688491 1.212922 -1.605474 255 226 64
-0.757569 1.014818 -1.734505 173 130 26
0.125899 2.760759 -1.871111 222 208 170
-0.397469 1.145189 -1.662038 102 91 25
-0.169453 2.617240 -3.383471 103 69 51
-0.742960 1.097388 -1.671552 255 219 76
-0.277544 2.637327 -1.963278 97 64 48
-0.228194 1.868250 -1.429286 37 33 29
0.204202 1.399494 -1.395480 102 91 28
0.135310 2.141481 -1.761498 155 143 154
0.930294 1.733024 -1.210183 255 231 77
-1.059481 2.085275 -2.373596 226 207 162
0.515276 1.474212 -1.229410 96 76 13
0.099019 2.066352 -1.664600 184 121 24
0.691072 1.397076 -1.196131 234 199 56
-0.117677 1.940998 -1.581684 247 176 40
0.322444 1.728553 -1.195772 87 42 3
-0.104886 1.896057 -1.169942 198 201 222
-0.049709 1.686673 -1.200675 72 80 107
0.800972 1.708308 -1.206836 255 240 59
0.314962 1.459958 -1.167498 10 8 7
-0.622839 1.471577 -1.526431 255 242 64
0.191594 1.866995 -1.120050 113 78 13
0.567943 1.400669 -1.197342 99 76 13
-1.218564 0.622824 -2.671306 0 0 0
0.136313 1.720646 -1.006377 141 119 39
-0.325185 2.411018 -2.094066 19 20 21
0.123473 1.708700 -1.001320 20 23 26
0.119196 2.349414 -2.112248 185 158 115
0.122749 1.709489 -1.001765 20 23 26
-0.230884 2.312393 -1.958730 33 26 21
0.589617 1.387118 -0.995654 255 255 79
0.324993 1.518403 -0.993737 85 94 117
0.156621 1.687273 -0.923088 86 103 136
-0.435946 1.455045 -2.896326 67 46 38
-0.419831 2.239282 -2.005371 157 152 164
-0.618521 1.267228 -2.835671 92 93 81
-0.515893 1.165474 -2.749009 55 59 55
-0.109999 1.349566 -2.729967 14 7 5
-0.386449 1.471058 -2.653206 52 63 88
-1.113713 1.922588 -2.327315 173 152 114
0.378639 1.613103 -2.525079 87 60 46
-0.493515 1.166447 -2.495684 55 60 80
0.672819 1.949226 -1.118443 0 0 0
0.488796 1.624347 -2.449192 86 58 44
-0.035362 1.936181 -1.302008 188 116 19
-0.299703 1.425619 -2.497512 6 7 9
-0.373978 1.456237 -1.932638 55 56 70
-0.934086 1.329108 -1.810910 255 226 56
-0.329493 1.422733 -2.484930 59 66 89
-0.678270 1.128118 -1.571389 208 2 1
0.643865 1.757492 -2.411337 95 65 52
0.566905 3.191405 -1.550348 144 88 58
-0.331524 1.254859 -2.420846 8 8 11
0.153168 2.777316 -1.806999 228 207 164
0.317217 1.816594 -2.435048 12 12 14
-0.474382 1.251365 -2.401148 55 68 95
0.525111 2.309052 -2.117878 112 108 97
0.182202 1.746960 -2.343949 41 51 73
0.074573 1.655496 -2.341192 61 67 89
1.255445 2.181052 -2.133249 106 73 61
0.346104 1.862169 -2.334965 8 7 8
1.167410 2.169910 -2.153036 220 200 160
0.239765 1.059086 -2.207835 41 49 71
0.077715 1.657539 -2.318450 55 63 85
-0.556020 1.335372 -2.345358 83 69 15
0.263871 1.793015 -2.303744 72 77 97
-0.104346 2.306979 -2.007265 133 93 24
0.275624 1.773678 -2.236903 25 29 42
-0.162156 2.300014 -2.013981 22 14 11
0.374027 1.811309 -2.226131 4 4 5
1.046519 2.111769 -2.181886 53 41 44
-0.809297 1.214845 -2.287415 92 98 121
1.363718 2.203253 -2.129942 104 76 65
-1.454528 1.959055 -2.441194 142 100 79
-0.290372 1.389334 -2.200840 88 61 7
-0.453641 1.221895 -2.115585 145 102 20
-0.264095 2.299300 -1.727998 29 34 43
-0.172800 1.398134 -2.079547 20 23 32
-0.235985 2.248225 -1.956264 130 127 140
-0.506677 1.311747 -2.107006 53 59 77
-0.327976 1.278219 -2.081369 158 121 26
-0.201761 2.213754 -1.955821 0 0 0
-0.199378 1.369685 -2.049557 154 165 192
-0.448602 1.429753 -1.991050 136 97 17
-0.158715 2.171666 -2.033877 40 29 21
-0.262952 1.417839 -1.941644 76 82 101
0.402677 2.267157 -0.901596 255 238 61
0.036437 1.642547 -1.879040 130 99 24
-1.039244 2.037107 -2.278599 26 25 27
-0.271304 1.504984 -1.904188 254 207 53
0.049544 2.062073 -1.731536 180 127 27
-0.163871 1.564737 -1.858391 177 144 40
0.049544 2.062073 -1.731536 180 127 27
0.220719 1.851457 -1.808451 90 65 11
0.192171 1.889922 -1.808255 79 49 6
-0.750135 1.534410 -1.900133 90 93 113
-0.130468 1.957852 -1.605517 252 170 38
-0.382027 1.178903 -1.830398 16 18 26
-1.092217 1.857267 -2.314727 12 10 11
-1.067475 1.906463 -2.126985 134 128 112
0.080531 1.433234 -1.712765 99 111 142
0.168321 2.086564 -0.915888 173 118 39
-0.396906 1.175882 -1.759728 67 76 86
0.753226 1.964368 -1.108303 254 192 51
-0.286759 1.497639 -1.725170 50 37 10
0.073012 1.465007 -1.670386 101 93 33
-0.395324 1.662098 -1.810366 243 184 50
-0.757550 1.161225 -1.648404 255 219 75
0.726479 1.553391 -1.208546 250 149 26
-0.003249 1.884329 -1.419065 109 81 16
0.683698 1.524159 -1.213974 239 136 22
0.022733 1.887463 -1.405010 111 85 19
-0.927293 1.367842 -1.864246 255 234 59
0.073664 1.867323 -1.356216 142 118 32
0.675479 1.480989 -1.156217 255 164 28
0.060754 1.882225 -1.352814 117 91 20
-0.679224 1.209268 -1.597836 255 220 63
-0.134778 1.864484 -1.282721 25 25 30
1.247476 2.685149 -5.430424 138 133 117
-0.059233 1.718182 -1.134177 121 106 36
-0.201688 2.437754 -2.041627 5 5 6
0.346058 1.470191 -1.120994 18 22 30
-0.121677 2.386807 -1.954786 14 14 15
0.417214 1.402455 -1.118213 10 10 11
0.229425 1.848439 -1.079619 107 68 14
0.360261 1.435414 -1.087783 55 67 95
1.104387 2.163765 -2.176203 123 107 84
0.406198 1.406273 -1.085063 9 11 16
1.104387 2.163765 -2.176203 123 107 84
0.616541 1.327272 -1.046610 147 129 40
0.285326 1.554540 -0.990701 96 108 137
0.113533 1.724545 -0.911108 113 129 162
-0.320216 2.318552 -2.036926 146 133 143
0.701446 2.164718 -2.055637 232 217 180
-0.048057 2.306230 -2.028863 25 22 19
0.701446 2.164718 -2.055637 232 217 180
1.374720 2.203858 -2.119241 116 85 72
0.822081 2.434460 -2.016863 233 219 182
-0.582604 2.273249 -2.199087 27 24 22
0.823398 2.445984 -2.017127 233 219 182
0.998129 2.551000 -1.943660 233 219 182
0.970813 2.608450 -1.897259 110 102 84
-0.375816 2.207040 -1.961907 21 20 21
0.800921 2.566845 -1.911046 238 221 185
-0.225215 2.210510 -1.888212 142 149 166
0.404260 2.649366 -1.915338 236 219 181
0.398762 2.203964 -0.878333 255 210 57
0.783612 2.457581 -2.013952 134 121 92
-1.088679 1.946601 -2.355530 27 25 26
0.783612 2.457581 -2.013952 134 121 92
-1.084025 1.891869 -2.119159 16 16 17
0.727571 2.508527 -1.960665 120 112 89
0.002458 1.967201 -1.318826 202 137 29
0.946491 2.625842 -1.881145 227 213 176
0.807432 1.693203 -1.217476 255 241 61
0.867224 2.669454 -1.840039 234 218 181
-0.676861 1.606716 -1.857574 196 198 217
-1.275758 1.606398 -2.017392 0 0 0
-0.226362 2.296160 -1.884510 26 23 19
0.593941 1.796547 -1.543875 0 0 0
-0.325136 1.235947 -1.801959 187 194 213
-1.098097 1.338064 -1.900062 0 0 0
-0.275680 2.289175 -1.729660 23 25 31
0.496353 1.979434 -2.308092 223 208 170
-0.264900 2.290615 -1.930979 0 0 0
-1.353481 1.949431 -2.250626 0 0 0
-0.179401 2.283640 -1.948326 13 11 11
-0.007604 1.741032 -0.985578 0 0 0
-1.003419 2.041534 -2.378182 205 187 147
-1.317461 1.939413 -2.498281 185 177 150
-0.653991 1.990746 -1.571407 131 104 25
0.199544 1.753806 -0.814418 127 115 44
1.130127 2.168388 -2.166215 175 164 136
-0.480301 1.469566 -1.952285 254 211 57
-1.070048 1.915162 -2.206299 18 17 18
-0.112532 1.884528 -1.419276 0 0 0
-1.436130 1.951333 -2.478930 178 170 143
0.050063 1.824576 -1.235772 0 0 0
-0.602908 1.544181 -1.580026 194 185 191
0.025347 1.509257 -1.652460 191 166 62
-0.946333 1.290318 -1.671632 255 208 52
0.323796 1.973109 -2.066107 209 189 153
-0.150857 2.605631 -1.941097 143 129 99
-0.007394 1.664340 -1.933482 107 87 21
0.587662 2.993471 -1.675442 228 213 175
-0.279610 1.594617 -1.817347 46 34 6
1.142181 2.319347 -2.159532 228 213 174
0.957099 1.752420 -1.269431 0 0 0
0.953095 1.736741 -1.206005 177 130 33
-0.866662 1.214972 -1.618934 255 229 72
0.946855 1.719506 -1.208808 177 130 33
-0.538674 2.459505 -2.141210 90 60 46
0.129753 1.765692 -0.862016 133 107 79
0.404241 2.964653 -1.693598 106 70 51
-0.860352 1.261870 -2.886339 129 131 123
-0.125817 2.473421 -2.004971 212 195 153
-0.812836 1.506865 -2.715613 103 105 96
0.588407 1.481404 -1.255195 255 253 63
0.287287 1.627795 -2.184465 45 53 75
-0.446905 1.378994 -2.030633 80 81 91
0.940255 2.641855 -1.840200 228 213 175
-0.169824 2.517059 -2.010823 223 204 164
0.050301 1.887775 -1.583386 0 0 0
-0.294422 1.830020 -1.481169 241 206 73
0.982647 2.149680 -2.192374 230 216 179
0.740503 1.632100 -1.362851 0 0 0
-0.276136 2.038047 -1.686633 199 204 229
0.345687 1.639408 -1.359908 142 123 49
0.759721 1.866617 -1.140087 0 0 0
0.317188 1.695131 -1.259896 169 154 99
0.194502 1.842199 -1.159190 178 159 102
-0.901624 1.992065 -2.269032 172 168 184
0.551869 1.434872 -1.218272 139 119 37
-0.967383 1.949427 -2.327781 166 163 178
-0.181696 1.855744 -1.191815 0 0 0
0.138439 1.405454 -1.341213 244 201 60
-0.925366 1.377597 -2.870391 127 129 121
-0.947144 1.302636 -1.755474 255 212 54
-0.876304 1.465489 -2.741238 112 114 105
-0.833547 1.561517 -2.651098 69 72 67
0.282909 2.882624 -1.731076 100 67 50
1.038986 2.000270 -2.266638 45 31 25
-0.189680 2.685406 -1.889876 95 64 54
-1.320003 1.988940 -2.449946 213 200 163
-0.390086 2.571082 -1.986638 97 66 55
-0.999291 1.477993 -2.108359 93 67 10
-0.314181 2.450248 -2.084279 22 21 22
-0.947490 1.442254 -2.003303 160 104 18
0.191284 2.277635 -2.122063 255 230 174
-0.982208 1.427101 -2.005473 116 0 0
-0.146922 2.353603 -1.953764 23 22 21
-0.986200 1.437741 -2.005577 116 0 0
0.997809 1.987376 -2.254475 103 72 61
-0.029483 1.644267 -1.786797 163 128 42
0.244407 2.144868 -0.884930 255 255 66
-0.144384 1.856781 -1.582713 0 0 0
-0.244626 2.018691 -1.681329 147 109 25
0.792757 1.653638 -1.319441 105 91 26
-0.939951 2.012012 -2.376244 13 12 13
0.248273 1.537007 -1.234291 5 8 13
-0.746122 1.867122 -1.991238 21 11 8
0.304608 1.464835 -1.128499 125 136 166
0.754776 1.538773 -1.131355 255 161 32
0.241936 1.605678 -0.986112 6 7 9
-0.491817 1.349692 -2.052248 177 183 206
0.241895 1.604382 -0.984419 6 7 9
0.620797 1.334666 -1.022216 255 250 77
0.067867 1.818168 -0.916629 0 0 0
-0.580003 1.227700 -1.585794 255 245 62
-0.977665 1.477865 -2.733232 71 74 67
0.260011 2.850151 -1.774662 212 194 155
-0.921124 1.515170 -2.707935 68 72 66
0.143885 2.709017 -1.364983 0 0 0
-0.866059 1.554191 -2.684099 65 69 62
-0.865523 1.553412 -2.683883 65 69 62
1.023198 2.062027 -2.189567 101 63 41
-0.815163 1.611809 -2.664162 59 63 56
-0.191321 2.334741 -1.905106 40 43 49
-0.985749 1.640830 -2.620296 124 123 113
-0.226362 2.296160 -1.884510 26 23 19
0.448041 1.800903 -2.443410 100 71 59
-1.280302 1.844496 -2.536090 213 202 169
-0.217548 1.907070 -1.450395 249 201 81
0.571689 1.880221 -2.355804 223 206 172
-1.315023 1.881869 -2.511978 234 218 181
-0.055201 1.853121 -1.172602 255 198 49
-1.310614 1.868897 -2.509894 234 218 181
0.186842 1.703685 -0.912419 189 200 227
1.046276 1.994021 -2.300789 86 87 81
0.635445 1.958120 -2.337378 221 205 171
-0.369818 1.160677 -1.703321 0 0 0
-1.256353 1.920539 -2.488778 229 214 177
0.475511 3.007418 -1.672250 229 212 171
1.072362 2.163828 -2.178292 109 79 67
0.785413 2.662227 -2.320287 239 217 169
0.354263 1.761945 -2.223438 2 1 2
-0.175132 2.322151 -1.760593 135 128 141
-0.969481 1.445678 -2.159218 100 68 12
0.236819 1.946369 -1.952838 116 94 24
-0.250895 2.292127 -1.941971 28 24 20
-0.923496 1.461515 -2.077885 32 36 47
-0.072555 2.257206 -2.062692 35 31 26
0.890222 2.789793 -1.803773 238 221 182
-0.479898 2.206666 -2.908467 26 29 35
0.268114 1.765122 -1.658740 173 127 39
-0.253863 2.304757 -1.740264 26 29 35
-0.011678 1.549641 -1.605545 208 179 66
-0.231943 1.817633 -1.536734 31 35 39
-0.096974 1.630199 -1.545567 200 174 65
-0.160847 2.226845 -1.921451 191 147 43
0.389338 1.674418 -1.435927 99 79 18
0.492916 2.171120 -0.973797 255 234 63
0.289224 1.411973 -1.471615 30 36 52
0.223824 1.404387 -1.396783 29 35 50
0.169065 1.779729 -0.974561 135 115 42
-0.160045 2.043545 -1.665289 255 230 60
0.140965 1.696783 -0.990886 55 56 61
0.139696 1.751318 -0.979623 55 56 61
-1.166671 2.029928 -2.392104 223 207 168
-0.953508 1.407552 -2.782553 125 127 118
-0.954621 1.411180 -2.783068 125 127 118
-0.999942 1.997673 -2.233488 22 21 21
-0.837991 1.472376 -2.733117 115 115 105
-1.023979 1.974744 -2.398328 209 195 156
-1.025900 1.463230 -2.745829 76 80 73
-1.003831 1.986539 -2.304274 209 195 156
-0.779508 1.506439 -2.708553 101 103 94
-1.065992 1.957791 -2.372779 34 33 34
-0.779267 1.505135 -2.708465 101 103 94
-0.879588 1.520085 -2.704497 108 111 102
-0.823194 1.552648 -2.681159 94 98 91
-0.935035 1.527050 -2.682819 117 117 106
-1.233114 1.699433 -2.615692 198 188 161
-0.596677 1.882717 -1.898984 255 220 56
0.275605 1.758731 -2.483581 93 97 93
-1.275922 1.753605 -2.587101 202 192 165
-0.187940 1.900174 -1.345133 19 16 14
0.099929 1.719068 -2.423299 3 2 2
-0.187940 1.900174 -1.345133 19 16 14
0.052419 1.855015 -2.423059 11 5 3
-0.172021 1.895933 -1.276971 202 207 226
0.276545 1.842549 -2.382760 1 2 3
-0.371162 1.576782 -1.864579 251 206 62
0.852443 1.895165 -2.316828 110 79 67
0.136135 1.754211 -0.875128 183 196 226
0.166076 1.734226 -2.348504 65 70 94
0.668370 1.509897 -1.197836 255 166 26
0.980084 2.159813 -2.190759 230 216 180
1.033402 2.180497 -2.165195 232 216 180
0.330113 1.444949 -1.017480 0 0 0
1.088425 2.234334 -2.140654 230 217 181
0.042642 2.864784 -1.729286 148 96 69
0.988172 2.238994 -2.135861 234 218 182
0.078745 2.810972 -1.779899 28 18 14
0.991706 2.257245 -2.135272 234 218 182
0.094354 2.764153 -1.882207 202 185 149
1.148055 2.272415 -2.115657 232 217 182
-0.106442 1.622097 -2.187300 100 79 21
-0.286458 2.454191 -2.066111 204 187 150
0.557744 2.304891 -2.117491 109 101 82
-0.360915 2.337607 -3.084554 129 121 133
0.531645 2.305903 -2.121204 112 95 68
-0.309136 2.400125 -2.113805 173 160 125
0.530201 2.305635 -2.118400 112 95 68
-0.309136 2.400125 -2.113805 173 160 125
0.725104 2.391686 -2.046407 121 111 88
1.001926 2.027834 -2.234904 51 32 25
0.510300 2.403949 -2.033861 237 219 180
-0.109853 2.305156 -2.022881 131 95 19
0.037674 1.654795 -1.911871 57 40 5
-0.171203 2.325522 -1.905960 128 133 148
0.235219 1.869975 -1.821575 113 92 24
0.204373 2.217158 -1.882285 155 159 177
0.235034 1.870011 -1.821458 113 92 24
0.218955 2.196441 -1.885217 40 37 32
0.253656 1.862725 -1.788036 83 57 9
0.219989 2.190934 -1.892623 40 37 32
0.248192 1.845496 -1.760541 109 90 24
-0.269020 2.289781 -1.924820 152 148 162
0.248305 1.848514 -1.760712 109 90 24
0.269675 1.847835 -1.727158 31 40 57
0.269786 1.847709 -1.727228 31 40 57
0.155911 1.648263 -1.738658 33 36 39
-0.234838 2.280853 -1.879849 137 135 147
0.200925 1.656965 -1.661715 111 63 9
-0.221211 2.287823 -1.762668 137 135 147
0.313618 1.599259 -1.587616 27 34 50
0.282437 1.488912 -1.404413 0 0 0
0.426013 1.628161 -1.322629 22 22 25
-0.163064 2.222159 -1.785478 174 125 28
0.429349 1.631554 -1.318247 22 22 25
-0.150653 2.222422 -1.904281 174 125 28
0.741248 1.544703 -1.262766 97 74 15
-0.005514 1.819660 -1.241637 121 84 16
-0.303560 2.253076 -1.760193 139 128 139
0.537307 1.432583 -1.246496 128 115 40
-0.311990 2.243088 -1.843047 139 128 139
0.535704 1.413290 -1.249672 128 115 40
0.007710 1.728629 -1.210552 74 73 86
-0.214179 2.222332 -1.775217 142 149 165
-0.023266 1.706358 -1.218548 24 26 38
0.429960 2.185370 -0.901452 184 131 31
0.553837 1.412252 -1.179196 139 126 47
-0.228505 2.164668 -1.801744 160 141 106
0.552876 1.398291 -1.182099 139 126 47
0.326307 2.078960 -1.024856 255 217 57
0.529057 1.446952 -1.167913 104 77 14
0.326307 2.078960 -1.024856 255 217 57
0.512619 1.454628 -1.152844 134 117 34
0.544135 1.418633 -1.104814 110 82 13
-0.963754 2.016551 -2.307995 197 182 144
0.428629 1.408723 -1.106407 16 13 6
0.176027 2.054055 -0.842946 244 177 43
0.527574 1.427443 -1.088175 138 124 42
-1.178858 2.041260 -2.373865 100 71 61
0.527493 1.426968 -1.088424 138 124 42
-1.060434 2.006978 -2.352792 21 21 21
0.099112 1.737777 -1.013419 7 12 18
-1.070753 1.909441 -2.362478 164 158 136
0.486016 1.472517 -1.057968 142 128 49
-0.013570 1.928577 -1.215415 196 135 28
0.486490 1.478296 -1.057063 142 128 49
-0.913939 1.477245 -2.740703 71 70 59
-0.238803 1.900843 -1.396068 36 36 39
-0.856668 1.510996 -2.716281 68 67 58
-1.130896 1.887771 -2.284365 0 0 0
-1.056533 1.532831 -2.682543 82 79 67
-1.107128 1.856225 -2.306875 136 133 118
-0.997465 1.557070 -2.658266 74 71 59
0.001736 1.746682 -1.114924 168 168 185
-0.993761 1.609952 -2.643050 128 125 115
-0.411981 1.625203 -1.833274 245 196 53
-0.940669 1.595184 -2.633816 68 65 52
-0.299338 1.439933 -1.625007 255 227 60
-1.173269 1.675763 -2.634888 157 153 136
-0.430705 1.292544 -1.596963 230 161 36
-1.196481 1.677857 -2.625394 99 99 87
-0.452389 1.190857 -1.604082 255 230 73
-1.145183 1.737877 -2.582895 135 134 123
-1.187568 1.790097 -2.554464 139 137 126
0.497422 2.992641 -1.682565 239 217 168
0.399886 1.887732 -2.406845 97 89 71
-0.125962 2.417060 -1.892937 15 15 16
0.400244 1.887075 -2.406731 97 89 71
-0.099899 1.959610 -2.647800 0 0 0
0.373321 1.858883 -2.405685 206 191 156
-0.195981 2.357709 -1.978792 37 39 44
0.305597 1.837928 -2.409957 2 2 4
-0.457658 1.460170 -2.616334 0 0 0
0.738922 1.831078 -2.367383 109 80 68
0.197535 1.640737 -2.204523 0 0 0
0.691378 1.813529 -2.372773 31 21 18
-0.326369 2.341067 -2.082290 15 9 7
-1.126114 1.813788 -2.528854 133 131 120
-0.146205 2.331427 -1.769210 26 23 18
0.457264 1.920636 -2.382160 106 96 75
-0.223643 2.279348 -1.919890 142 138 149
0.751058 1.852247 -2.349816 34 22 18
-0.223643 2.279348 -1.919890 142 138 149
0.647013 1.881549 -2.360307 40 22 16
-0.301864 2.252657 -1.932558 25 29 37
-1.071488 1.854661 -2.504852 125 123 112
-0.105465 2.222709 -1.808793 35 28 21
0.795898 1.859218 -2.342779 108 79 67
-0.451097 2.216248 -2.013821 145 137 146
-1.271917 1.867248 -2.514478 115 113 97
-0.312705 2.165981 -1.877049 150 157 174
-1.327168 1.835097 -2.518905 228 216 181
0.161623 2.087632 -0.924891 255 242 67
0.918288 1.951623 -2.320150 108 78 67
0.912437 1.942489 -2.314607 108 78 67
-0.996478 1.988017 -2.397150 174 163 132
-1.211371 1.901517 -2.489401 110 108 91
-1.105046 1.948464 -2.345227 190 180 151
-1.274512 1.886670 -2.495588 229 215 180
0.818631 1.772571 -1.191676 0 0 0
-1.401189 1.909891 -2.498327 228 213 182
0.818631 1.772571 -1.191676 0 0 0
0.970858 1.974807 -2.292425 109 78 68
-0.260475 1.941997 -1.508165 147 92 13
0.923796 1.961052 -2.299153 33 21 18
0.923909 1.719214 -1.201142 252 185 42
0.923358 1.961134 -2.299673 33 21 18
0.923909 1.719214 -1.201142 252 185 42
-1.312132 1.917101 -2.485824 122 117 98
-1.372780 1.897910 -2.490879 229 217 181
-0.232773 1.909706 -1.407419 195 197 212
-1.151155 1.927003 -2.464454 105 102 86
-0.264062 1.908043 -1.422981 46 45 50
0.846528 1.941888 -2.293427 33 21 17
-0.154107 1.899344 -1.248377 43 42 46
-1.315137 1.933971 -2.465838 227 214 180
-0.606988 1.754606 -1.800215 255 229 62
0.721375 1.945083 -2.271485 226 210 175
-1.441873 1.961981 -2.456075 61 44 32
-1.004728 1.571050 -2.003134 230 200 150
-1.389454 1.971557 -2.436226 73 49 33
1.125523 2.170171 -2.166269 226 211 175
-0.460658 1.976514 -1.724860 245 181 43
1.402240 2.214120 -2.136636 2 1 1
-0.187073 2.361548 -1.904853 117 114 129
1.325368 2.207206 -2.122269 36 23 19
-0.180279 2.361897 -1.916092 117 114 129
1.288203 2.265616 -2.122136 116 88 73
-0.973923 2.190029 -2.510722 104 71 54
1.350041 2.242587 -2.102264 114 83 70
-1.191885 1.192759 -0.777907 0 0 0
1.312408 2.277927 -2.099430 232 218 182
0.534523 1.811562 -1.181234 255 224 58
0.527371 2.249836 -2.167361 122 108 82
0.489332 3.003316 -1.683074 236 218 175
0.535125 2.275061 -2.145118 231 214 176
0.002919 2.628803 -1.958543 238 218 175
0.494690 2.314913 -2.115903 229 213 174
1.142181 2.319347 -2.159532 181 170 144
0.499974 2.337604 -2.094585 92 82 60
-0.492782 2.109280 -1.994915 25 22 18
0.499597 2.337025 -2.094641 92 82 60
-0.380150 1.239076 -1.746184 255 223 61
0.813571 2.414632 -2.044523 128 116 91
-0.815816 1.881202 -2.101089 19 15 9
0.561453 2.400985 -2.035664 118 106 82
0.561453 2.400985 -2.035664 118 106 82
-0.940109 1.386719 -1.792096 255 210 54
0.617356 2.430502 -2.011176 117 105 84
-0.817016 1.036574 -1.721577 255 231 72
0.796779 2.514041 -1.970675 121 110 86
0.884110 1.858030 -1.140888 192 133 36
0.977303 2.663980 -1.837050 236 219 185
-0.212757 1.936774 -1.570485 255 230 58
0.108219 1.563908 -1.824651 102 64 9
-0.517689 1.663942 -1.770254 255 225 57
-0.141889 1.706872 -1.770094 165 139 56
0.765682 1.625457 -1.235323 255 231 56
-0.107778 1.698903 -1.754507 171 140 59
-0.336236 1.199506 -1.763686 192 197 224
-0.148640 1.743050 -1.726169 175 144 61
-0.126664 1.799434 -1.696720 117 89 21
0.508905 1.472202 -0.928829 255 249 76
-0.132520 1.815396 -1.673604 146 118 57
0.551909 1.412503 -0.991897 255 248 77
0.241632 1.577312 -1.576188 89 59 8
0.446419 2.927074 -1.180256 0 0 0
0.301477 1.553099 -1.529484 99 66 10
0.841519 2.737869 -1.830171 245 227 183
-0.150968 1.721696 -1.534293 123 74 7
0.513578 2.170399 -0.973828 255 218 60
0.029860 1.894340 -1.458945 110 68 12
0.882494 1.882105 -1.130591 255 222 61
-0.179980 1.799656 -1.446414 0 0 0
0.563344 1.635331 -1.267978 255 248 65
0.387244 1.594702 -1.373806 28 25 24
-1.075765 1.583764 -2.112552 0 0 0
0.408107 1.608137 -1.357577 85 68 17
0.372028 1.619355 -1.313565 135 120 53
-0.918866 1.086835 -1.696867 255 233 75
0.404461 1.617567 -1.305737 130 116 53
0.893242 1.704328 -1.222515 110 93 27
1.210333 2.297598 -2.092270 255 228 174
0.407313 1.625706 -1.251222 117 103 44
1.095724 2.230600 -2.147130 255 228 175
0.408891 1.572976 -1.262312 117 103 44
-0.082331 2.424359 -2.028112 239 213 164
0.906134 1.833992 -1.136147 255 240 83
-0.282949 1.948971 -1.580700 135 85 13
0.406356 1.521743 -1.226542 115 93 23
-0.444957 1.737616 -1.804563 255 211 51
0.489196 1.507234 -1.136472 94 73 13
0.777616 1.484373 -1.134646 0 0 0
0.743990 1.456707 -1.115987 175 134 34
-0.558118 1.581675 -1.634850 255 251 65
0.421476 1.419837 -1.144568 15 16 17
-0.549896 1.395928 -1.480857 255 254 70
0.209753 1.845314 -1.002400 137 114 41
-0.423400 1.247018 -1.567240 255 251 68
0.333789 1.423792 -1.055622 172 180 204
0.583497 1.352489 -1.056224 146 131 50
0.130548 1.647758 -0.915182 155 166 191
0.052684 2.751980 -1.840834 96 66 54
0.108218 1.771083 -0.875625 42 46 55
-0.142735 2.607851 -1.970972 239 217 168
0.191439 1.843563 -0.770980 126 93 16
-0.180274 2.290282 -1.894560 27 23 20
0.191439 1.843563 -0.770980 126 93 16
-0.526108 2.255530 -2.219572 15 13 13
0.149164 1.885485 -0.744862 128 92 15
-0.229457 2.136508 -1.763958 38 34 26
0.149302 1.884085 -0.745312 128 92 15
-0.798451 1.545589 -2.690300 59 57 47
0.167462 2.044892 -0.825254 255 255 67
-1.007981 1.661030 -2.612601 125 122 112
-0.245880 2.015586 -1.684917 119 75 11
0.261914 1.816931 -2.441433 1 2 3
0.736508 1.849560 -1.144933 255 227 60
-1.102200 1.801705 -2.539330 72 69 56
-0.240087 1.964494 -1.621029 255 227 59
-1.202079 1.818174 -2.533868 87 80 63
-1.259526 1.847303 -2.530015 198 190 161
-0.698952 1.943492 -1.856759 13 11 11
0.698903 1.827459 -2.354039 110 80 69
0.551290 1.536878 -1.242989 255 252 64
0.365660 1.816014 -2.381958 9 10 12
-0.532950 1.631887 -1.677951 255 245 63
0.344364 1.842358 -2.368400 4 5 9
-0.324713 1.261722 -1.794333 0 0 0
0.324618 1.855708 -2.368939 205 187 151
-0.480790 1.211399 -1.589378 255 245 65
0.324579 1.858711 -2.369509 205 187 151
0.620033 3.145109 -1.581197 234 208 163
0.878527 1.916923 -2.322649 35 22 19
0.409649 3.142883 -1.841674 213 183 143
-1.088138 1.885476 -2.485951 66 60 46
0.246246 2.787069 -1.829970 226 209 171
-1.361690 1.874148 -2.508433 108 106 92
1.344607 2.270339 -2.097839 239 214 169
-1.361690 1.874148 -2.508433 108 106 92
-0.194348 2.575743 -1.971251 234 210 162
0.382563 1.820271 -2.356967 10 7 9
